ply
format ascii 1.0
comment PCL generated
element vertex 1424
property float x
property float y
property float z
element camera 0
property float view_px
property float view_py
property float view_pz
property float x_axisx
property float x_axisy
property float x_axisz
property float y_axisx
property float y_axisy
property float y_axisz
property float z_axisx
property float z_axisy
property float z_axisz
property float focal
property float scalex
property float scaley
property float centerx
property float centery
property int viewportx
property int viewporty
property float k1
property float k2
end_header
0.22499974 0.41842055 0.90789366
0.22929661 0.41905934 0.9092797
0.23304813 0.41869664 0.90849274
0.23678982 0.4183287 0.90769434
0.23995027 0.41696277 0.90473056
0.24250288 0.41460168 0.89960742
0.24795488 0.41719389 0.90523207
0.25105834 0.41581541 0.90224099
0.25534698 0.416412 0.90353549
0.25841206 0.41502541 0.90052688
0.26269704 0.41561025 0.90179586
0.26635605 0.41520205 0.90091014
0.27000418 0.41478905 0.90001398
0.27299142 0.413387 0.89697188
0.27726758 0.41394874 0.89819074
0.2808826 0.41352156 0.89726377
0.28448635 0.41308972 0.89632678
0.28807873 0.41265333 0.8953799
0.29096699 0.41123331 0.89229876
0.29593045 0.41274512 0.89557904
0.298787 0.4113172 0.89248067
0.30089691 0.40891117 0.88726008
0.30586746 0.41040444 0.89050025
0.31012481 0.41091534 0.89160883
0.31290039 0.40947461 0.88848263
0.31790188 0.41094637 0.89167607
0.31912529 0.40755761 0.88432312
0.32259116 0.40707931 0.88328534
0.32604477 0.40659696 0.88223875
0.32870162 0.40514383 0.87908566
0.33291495 0.40562049 0.88011998
0.33392903 0.40223271 0.87276912
0.3397353 0.40462855 0.87796766
0.34312665 0.40412694 0.87687922
0.34650531 0.40362158 0.87578267
0.34987128 0.40311253 0.87467819
0.35154247 0.40068278 0.8694061
0.35571587 0.40112641 0.87036866
0.36074919 0.40252012 0.87339282
0.36320683 0.40104088 0.87018305
0.36476314 0.39860713 0.86490226
0.36891648 0.39903212 0.86582446
0.37129584 0.39754906 0.86260653
0.37454256 0.39701512 0.86144793
0.38048753 0.39932352 0.86645675
0.38281968 0.39783219 0.86322087
0.3832849 0.39444852 0.85587889
0.3901785 0.39768189 0.86289471
0.38964453 0.3933554 0.85350704
0.39563036 0.39563036 0.85844326
0.39879963 0.39507252 0.85723287
0.40099847 0.39357257 0.85397822
0.40123975 0.39019644 0.84665269
0.40725476 0.39244547 0.8515327
0.41134205 0.39281312 0.85233039
0.41148359 0.38943982 0.845011
0.4145498 0.38886973 0.84377396
0.41760248 0.38829702 0.84253132
0.42265925 0.38958156 0.8453185
0.42468342 0.38807276 0.84204471
0.43077242 0.39027241 0.84681755
0.42967811 0.38598204 0.83750826
0.43473837 0.38724589 0.84025055
0.43667933 0.38573343 0.83696878
0.44069609 0.38606429 0.83768672
0.44577214 0.38731018 0.84039003
0.44340155 0.3821184 0.82912487
0.44631159 0.38152441 0.82783598
0.45244756 0.38367555 0.8325035
0.45317775 0.38124475 0.8272292
0.45824122 0.38246906 0.82988572
0.460017 0.38095158 0.8265931
0.4628728 0.38034508 0.82527709
0.46460077 0.37882832 0.82198602
0.46854341 0.3791267 0.82263345
0.47474119 0.38123155 0.82720053
0.47189075 0.37609336 0.81605166
0.47808808 0.37818906 0.82059896
0.47857335 0.37576872 0.81534725
0.48132712 0.37515202 0.81400913
0.4910323 0.37992281 0.82436085
0.48679399 0.37391418 0.81132329
0.48833317 0.37239796 0.80803335
0.48984593 0.37088338 0.80474699
0.50082672 0.37650806 0.81695145
0.49875855 0.37231272 0.80784839
0.5050227 0.37435248 0.81227428
0.50528198 0.37194365 0.80704761
0.51398802 0.37574291 0.81529129
0.51299524 0.37244859 0.8081432
0.52052468 0.37534437 0.81442642
0.51701164 0.3702921 0.803464
0.52208322 0.3714149 0.80590028
0.5246793 0.3707734 0.80450833
0.52851152 0.37100807 0.80501759
0.53108698 0.37036324 0.80361843
0.53238732 0.36884353 0.80032086
0.53239465 0.36645347 0.79513484
0.55274224 0.37800437 0.82019818
0.5476523 0.37212273 0.80743611
0.54633409 0.36886248 0.80036205
0.54884112 0.36820987 0.79894602
0.56430751 0.376205 0.8162939
0.56163406 0.3720825 0.80734891
-0.58436799 0.39325395 0.84531224
-0.56495434 0.38259563 0.82240188
-0.59811521 0.41024569 0.88183659
-0.59505409 0.41344664 0.88871711
-0.59096307 0.41328791 0.88837594
-0.56555164 0.39811859 0.85576898
-0.5415923 0.38377732 0.82494193
-0.53148633 0.37912694 0.8149457
-0.57457298 0.4126128 0.88692468
-0.54465044 0.39376754 0.84641623
-0.5394513 0.39266184 0.8440395
-0.55495203 0.4067114 0.8742395
-0.54845738 0.40472373 0.86996686
-0.5516212 0.40988523 0.88106167
-0.54632062 0.40878534 0.87869745
-0.53268886 0.40139231 0.8628059
-0.53575188 0.40656346 0.87392151
-0.52105314 0.39823347 0.85601592
-0.52171034 0.40160435 0.8632617
-0.5199824 0.40317476 0.86663735
-0.5089522 0.39750281 0.85444534
-0.52105516 0.40994781 0.88119626
-0.53411841 0.42333829 0.90997952
-0.50253904 0.40128118 0.86256701
-0.50413126 0.40557924 0.87180585
-0.50565565 0.40988749 0.88106662
-0.48696148 0.39774716 0.85497051
-0.49737203 0.40937546 0.87996596
-0.48327571 0.40085655 0.86165434
-0.48139104 0.40241283 0.86499953
-0.46418768 0.39108726 0.84065485
-0.48296446 0.41013646 0.88160175
-0.46370694 0.39693314 0.85322076
-0.46500075 0.40125063 0.86250132
-0.47580466 0.41391137 0.88971603
-0.45574674 0.39971229 0.85919464
-0.46215907 0.4086861 0.87848413
-0.45591059 0.40652028 0.87382865
-0.43932897 0.39502686 0.84912318
-0.44349915 0.402156 0.86444753
-0.43733686 0.39995763 0.85972202
-0.43120387 0.39774841 0.85497326
-0.42610797 0.39646566 0.85221595
-0.42602766 0.39986804 0.8595295
-0.4219189 0.39951614 0.85877299
-0.42569429 0.40669009 0.87419367
-0.39795148 0.38709828 0.83208042
-0.40067884 0.39332694 0.84546912
-0.40808174 0.40430319 0.86906296
-0.39349794 0.39349794 0.84583676
-0.39130995 0.39500156 0.84906876
-0.3844282 0.39175063 0.84208083
-0.39610353 0.40752962 0.87599826
-0.37447935 0.38902223 0.83621603
-0.3786332 0.39719361 0.85378069
-0.37272382 0.39486584 0.84877706
-0.37490046 0.40114349 0.86227107
-0.36721423 0.39688808 0.8531239
-0.35519683 0.38781691 0.83362514
-0.35290819 0.38929045 0.83679259
-0.34972781 0.38980079 0.83788955
-0.3516688 0.39609012 0.85140866
-0.33993876 0.38695157 0.83176506
-0.3417916 0.39324406 0.84529096
-0.33937746 0.39471075 0.84844369
-0.33446366 0.39327046 0.8453477
-0.33527997 0.39861062 0.8568266
-0.33115727 0.39813289 0.85579973
-0.32384011 0.39376014 0.84640032
-0.33163014 0.40786695 0.87672335
-0.32507998 0.40446001 0.86939996
-0.324009 0.40787014 0.87673026
-0.3121396 0.39760637 0.85466796
-0.31257835 0.40296248 0.86618102
-0.30391771 0.3965756 0.85245222
-0.30426684 0.40193272 0.8639676
-0.30525494 0.40827844 0.87760788
-0.30250397 0.40972057 0.8807078
-0.29470521 0.40427512 0.86900258
-0.28203538 0.39191929 0.84244335
-0.2863782 0.40319034 0.86667085
-0.2842983 0.40559888 0.87184805
-0.28149 0.40701932 0.87490135
-0.28000295 0.41041526 0.88220108
-0.27312428 0.40589303 0.87248033
-0.27158105 0.40928411 0.87976962
-0.2673794 0.40870854 0.87853241
-0.26254395 0.40713334 0.87514645
-0.26025918 0.40952545 0.88028836
-0.25481412 0.40694198 0.87473512
-0.25371101 0.4113194 0.88414448
-0.24949989 0.41071519 0.88284576
-0.24469912 0.40910634 0.8793875
-0.24051148 0.40848771 0.87805772
-0.23748991 0.40986159 0.88101095
-0.23330002 0.40923116 0.87965584
-0.22967967 0.4095954 0.88043875
-0.22715503 0.41195914 0.88551968
-0.22241025 0.41030854 0.88197172
-0.21769169 0.40864933 0.87840509
-0.21615519 0.41301081 0.88778031
-0.21350405 0.41536239 0.89283508
-0.208268 0.4126792 0.88706744
-0.20307705 0.40998575 0.8812778
-0.20087115 0.41333103 0.88846856
-0.19715974 0.41364884 0.88915169
-0.19391161 0.41497087 0.89199346
-0.19017427 0.41527849 0.89265472
-0.18688227 0.41659173 0.89547759
-0.1835639 0.4179008 0.89829147
-0.17891333 0.41616794 0.8945666
-0.17514384 0.41645312 0.89517963
-0.17094971 0.41571864 0.89360082
-0.16798975 0.41802096 0.89854974
-0.16458695 0.41930488 0.90130949
-0.16037989 0.41855243 0.89969212
-0.15656427 0.41880938 0.90024453
-0.15385383 0.42211181 0.90734315
-0.14891227 0.41930562 0.9013111
-0.14507623 0.41954476 0.90182519
-0.14191931 0.42181575 0.90670675
-0.13738488 0.4200052 0.90281492
-0.13417806 0.42226622 0.90767503
-0.12998357 0.42146191 0.90594614
-0.12610734 0.42167142 0.90639651
-0.12252133 0.42289615 0.90902913
-0.11833791 0.42207184 0.90725726
-0.11416796 0.42124039 0.90547001
-0.11054702 0.42244753 0.90806478
-0.10716037 0.42467257 0.91284764
-0.10298477 0.42382193 0.91101909
-0.099301957 0.42501238 0.91357797
-0.095365837 0.42517269 0.91392267
-0.091645673 0.42635161 0.9164567
-0.087480687 0.42547426 0.91457087
-0.083330721 0.42458984 0.91266984
-0.079771236 0.42677608 0.91736919
-0.075441055 0.42485225 0.91323382
-0.071490906 0.4249737 0.91349488
-0.068026878 0.42816913 0.92036361
-0.063888066 0.42725143 0.91839093
-0.0594774 0.42427212 0.91198683
-0.055928029 0.42744994 0.91881764
-0.051694307 0.42548391 0.91459155
-0.04784235 0.42659429 0.91697842
-0.043969009 0.42769852 0.91935199
-0.03997834 0.4277682 0.91950178
-0.035899304 0.42680281 0.91742659
-0.031991605 0.42788774 0.91975868
-0.027861318 0.42588016 0.91544336
-0.023883542 0.42592317 0.91553581
-0.019952729 0.42698839 0.91782558
-0.015963299 0.42701825 0.91788971
-0.011944275 0.42601249 0.91572779
-0.0079439254 0.42500004 0.91355145
-0.0039720549 0.42500991 0.91357273
0 0.42501324 0.91357988
0.0039816722 0.42603895 0.91578466
0.0080016283 0.42808717 0.92018735
0.011973127 0.4270415 0.91793972
0.015924834 0.42598927 0.91567791
0.020000808 0.42801729 0.92003721
0.023825854 0.42489442 0.91332442
0.027995916 0.42793757 0.91986585
0.031914704 0.42685917 0.9175477
0.035899304 0.42680281 0.91742659
0.039786134 0.42571163 0.91508108
0.043757617 0.42564225 0.91493201
0.047611788 0.42453846 0.91255927
0.051819172 0.42651165 0.91680074
0.055928029 0.42744994 0.91881764
0.059909437 0.42735398 0.91861135
0.063734487 0.42622435 0.91618323
0.067537472 0.42508876 0.91374218
0.071663588 0.42600024 0.91570145
0.075441055 0.42485225 0.91323382
0.079387717 0.42472425 0.91295874
0.083531998 0.42561543 0.91487432
0.087691486 0.42649952 0.91677463
0.091645673 0.42635161 0.9164567
0.095365837 0.42517269 0.91392267
0.099541239 0.42603651 0.91577941
0.10298477 0.42382193 0.91101909
0.10716037 0.42467257 0.91284764
0.11108235 0.42449325 0.91246217
0.11499926 0.42430764 0.91206318
0.11977056 0.42718166 0.91824102
0.12340917 0.42596063 0.91561633
0.12763406 0.42677638 0.91736984
0.1312425 0.42554384 0.91472042
0.13547447 0.42634612 0.9164449
0.13971908 0.42714122 0.91815406
0.14363334 0.42691019 0.91765738
0.14683686 0.4246363 0.91276962
0.14999656 0.42235878 0.90787405
0.15496604 0.42516324 0.91390228
0.15846431 0.42389202 0.91116977
0.16232625 0.42363194 0.91061068
0.16618101 0.42336592 0.91003889
0.17043619 0.42410865 0.91163546
0.17303446 0.42078835 0.90449834
0.17855297 0.42455927 0.91260409
0.18196052 0.42325595 0.90980256
0.18534176 0.42194825 0.9069916
0.18915026 0.42164746 0.90634501
0.19341324 0.42235136 0.90785807
0.19721425 0.4220385 0.90718555
0.20100676 0.42172006 0.90650105
0.20430067 0.42038789 0.90363759
0.20806666 0.42005911 0.9029308
0.21233179 0.42073148 0.90437609
0.21608883 0.42039099 0.9036442
0.21983667 0.42004505 0.90290064
0.22411013 0.42069796 0.90430409
0.22839192 0.42134371 0.90569216
0.23212922 0.42098013 0.90491056
0.23585686 0.42061138 0.90411794
0.23843375 0.41823626 0.89901257
0.24386159 0.42085788 0.90464777
0.24580391 0.41747645 0.89737934
0.25007057 0.41808677 0.89869118
0.25313339 0.41669649 0.89570272
0.25801119 0.41829085 0.89912993
0.26042128 0.41589671 0.89398354
0.26657614 0.41946536 0.90165454
0.26958779 0.41805643 0.89862597
0.27257121 0.4166446 0.89559126
0.27421138 0.41324812 0.88829041
0.28045198 0.41678283 0.89588833
0.28337646 0.41536003 0.89283001
0.2869558 0.41492257 0.89188969
0.28914037 0.41250691 0.88669711
0.29267991 0.41206253 0.88574183
0.29549938 0.410629 0.88266051
0.29900748 0.41017693 0.88168871
0.30468026 0.41266817 0.88704377
0.30745628 0.41122279 0.88393682
0.31243011 0.41271627 0.88714719
0.31292269 0.40832597 0.87771004
0.31713048 0.40883085 0.87879527
0.31980887 0.40737557 0.87566715
0.324009 0.40787014 0.87673026
0.3289966 0.40933302 0.87987471
0.33083865 0.40689352 0.87463093
0.33503458 0.40737161 0.87565863
0.33842659 0.40687242 0.87458563
0.34099033 0.40539962 0.87141979
0.34517309 0.40586287 0.87241554
0.34686375 0.40341762 0.86715931
0.35018942 0.40290609 0.86605984
0.35435015 0.40335602 0.86702698
0.35680264 0.40187246 0.86383796
0.36095363 0.4023129 0.86478478
0.36336473 0.40082499 0.86158645
0.36662644 0.40029618 0.86044973
0.36898822 0.39880544 0.85724533
0.37490046 0.40114349 0.86227107
0.37633371 0.39869016 0.85699761
0.37954336 0.39814842 0.85583311
0.38365778 0.3985571 0.85671151
0.38499784 0.39610356 0.85143751
0.38909358 0.39650488 0.85230023
0.3922506 0.39595109 0.8511098
0.39444613 0.39444613 0.84787494
0.39756912 0.39388791 0.84667498
0.40164202 0.39427245 0.84750152
0.40668702 0.39559558 0.85034561
0.40783623 0.39313942 0.84506607
0.41091326 0.39256892 0.84383976
0.41298413 0.39105576 0.8405872
0.41502693 0.38954282 0.83733505
0.42107123 0.3917793 0.84214246
0.42308709 0.39026138 0.83887959
0.42405325 0.3878094 0.83360893
0.43012214 0.390026 0.83837366
0.43311206 0.38943687 0.8371073
0.43608838 0.38884547 0.83583611
0.43484965 0.38453645 0.82657367
0.43882802 0.38487375 0.8272987
0.44280702 0.38520607 0.82801312
0.44571501 0.38460889 0.82672936
0.4475311 0.38308662 0.82345724
0.45040503 0.38248682 0.82216793
0.45435777 0.38280538 0.82285267
0.46050882 0.3849566 0.8274768
0.45894602 0.38067612 0.81827581
0.46399134 0.38190058 0.82090783
0.46345297 0.37854552 0.81369603
0.46849158 0.37976211 0.81631112
0.46787912 0.37641403 0.80911422
0.47177133 0.37671292 0.80975676
0.47795573 0.37882417 0.81429493
0.47840241 0.37639013 0.8090629
0.48576537 0.37939337 0.8155185
0.48966953 0.37967131 0.81611586
0.49240074 0.3790423 0.81476384
0.49276066 0.37660995 0.80953544
0.50019312 0.37957916 0.81591785
0.4957462 0.37355527 0.80296922
0.50438815 0.37740928 0.81125361
0.50946677 0.37856212 0.81373167
0.51334643 0.37881428 0.81427366
0.51600808 0.37817028 0.81288946
0.5149864 0.37485403 0.80576104
0.51883179 0.37510133 0.80629259
0.52020472 0.37356985 0.80300063
0.52403557 0.37381205 0.80352122
0.531609 0.37670305 0.8097356
0.53420174 0.37604991 0.80833161
0.5393011 0.37715828 0.81071407
0.53808081 0.37386134 0.80362719
0.54698753 0.37759784 0.81165892
0.55210632 0.37868831 0.81400299
0.54054409 0.36839628 0.79187983
0.53270817 0.36075804 0.7754612
0.54679221 0.3679671 0.79095733
0.54535013 0.36470285 0.78394073
-0.58884513 0.39997029 0.85178858
-0.5990597 0.40948385 0.87204891
-0.59631813 0.41020608 0.87358707
-0.58207375 0.40297413 0.85818571
-0.58697993 0.40899247 0.87100244
-0.58646506 0.41397536 0.88161415
-0.55483806 0.39422706 0.83955765
-0.58330208 0.41719618 0.88847339
-0.53331029 0.38398337 0.81774241
-0.57756293 0.41863623 0.89154011
-0.53169358 0.38799259 0.82628053
-0.5680992 0.41737902 0.88886267
-0.52143914 0.3857221 0.82144523
-0.53809446 0.40078759 0.8535291
-0.55453426 0.41590074 0.88571447
-0.51451892 0.38858768 0.82754785
-0.50106776 0.3810938 0.81158859
-0.53506935 0.40984038 0.87280816
-0.52274185 0.403258 0.85879022
-0.54211712 0.4212133 0.89702833
-0.4925327 0.38546035 0.8208878
-0.49092755 0.38700861 0.82418495
-0.52312213 0.41849774 0.89124519
-0.52009284 0.41917929 0.89269662
-0.52836275 0.42904642 0.91371
-0.50274271 0.41133496 0.87599111
-0.4919104 0.40554443 0.86365938
-0.50560504 0.42004114 0.89453202
-0.50803739 0.42533359 0.90580302
-0.47636092 0.40192956 0.85596108
-0.47774854 0.40627435 0.86521387
-0.47816202 0.41313198 0.87981814
-0.46651503 0.40631953 0.86531013
-0.47303632 0.41534898 0.88453954
-0.45618561 0.40383643 0.86002201
-0.44055268 0.39322054 0.83741415
-0.44903845 0.40413457 0.86065698
-0.45218024 0.41038203 0.87396181
-0.42953265 0.39313155 0.83722466
-0.4438785 0.40973401 0.87258166
-0.43567535 0.4056288 0.86383909
-0.43054843 0.40434113 0.86109686
-0.44241431 0.41912937 0.89259034
-0.43322843 0.41405904 0.88179243
-0.42608443 0.41086715 0.87499487
-0.41800883 0.40671131 0.86614442
-0.40708557 0.39968401 0.85117888
-0.41646579 0.41264501 0.87878102
-0.40273416 0.40273416 0.8576746
-0.38725999 0.39087927 0.83242804
-0.39263326 0.40004143 0.8519401
-0.39319861 0.40443283 0.86129212
-0.3770552 0.39155728 0.83387202
-0.38769138 0.40651134 0.8657186
-0.37808987 0.40033045 0.85255557
-0.36948395 0.39509174 0.84139907
-0.36274457 0.39176416 0.83431256
-0.37465438 0.40871388 0.87040913
-0.36346084 0.40054867 0.85302031
-0.35326505 0.39332604 0.83763874
-0.34749329 0.39092997 0.83253604
-0.3400476 0.38658044 0.82327318
-0.33944052 0.38999549 0.83054596
-0.33541954 0.38951948 0.82953221
-0.33887756 0.39781275 0.84719384
-0.32821155 0.3895258 0.82954568
-0.33396906 0.40076289 0.85347652
-0.33389175 0.40517202 0.86286634
-0.33373773 0.4095872 0.87226903
-0.32560343 0.40419734 0.86079067
-0.3230297 0.40566519 0.86391658
-0.31965357 0.40614805 0.86494493
-0.31090498 0.39973497 0.85128742
-0.30453232 0.39625898 0.84388483
-0.30420837 0.40066469 0.85326743
-0.29713768 0.39618355 0.84372425
-0.30259413 0.4085021 0.86995816
-0.30059567 0.41094092 0.87515193
-0.28351715 0.39256221 0.83601213
-0.2879729 0.40391004 0.86017883
-0.2887367 0.41031006 0.8738085
-0.28317183 0.40776744 0.86839366
-0.2817398 0.41118783 0.87567776
-0.27552998 0.40763336 0.86810809
-0.27203792 0.40805686 0.86900997
-0.26722187 0.40647838 0.86564839
-0.26566938 0.40988991 0.87291366
-0.26277587 0.41130134 0.87591952
-0.25796238 0.40970495 0.87251979
-0.25628328 0.4131133 0.87977839
-0.25208825 0.41250804 0.87848938
-0.24669111 0.40988678 0.87290704
-0.24312392 0.41027164 0.87372661
-0.2418953 0.41467765 0.88310981
-0.23595975 0.41102666 0.87533456
-0.23350196 0.41341332 0.88041723
-0.22875647 0.41176164 0.87689984
-0.22514047 0.41212153 0.87766623
-0.22260089 0.41449824 0.88272774
-0.21627828 0.40979043 0.87270182
-0.21423644 0.41317031 0.87989968
-0.21161576 0.4155364 0.8849386
-0.20692161 0.41384321 0.88133281
-0.20424728 0.41620201 0.88635612
-0.20103906 0.41754264 0.88921118
-0.19636381 0.41582924 0.88556224
-0.19312951 0.41715974 0.88839579
-0.18940675 0.41746792 0.88905209
-0.18567586 0.41777068 0.88969684
-0.18238063 0.41908741 0.892501
-0.17775543 0.41733885 0.88877714
-0.17443539 0.41864493 0.89155871
-0.1715057 0.42096853 0.89650708
-0.16690344 0.41919932 0.8927393
-0.16392212 0.421514 0.89766878
-0.15973078 0.42075425 0.89605069
-0.15630966 0.42203611 0.89878058
-0.152493 0.42228833 0.89931774
-0.14903042 0.42356011 0.90202618
-0.14483951 0.42277476 0.90035367
-0.14066076 0.42198229 0.89866596
-0.13716021 0.4232372 0.90133852
-0.13363484 0.42448714 0.9040004
-0.12977058 0.42470369 0.90446156
-0.12529077 0.42285636 0.90052748
-0.12232015 0.42614761 0.90753657
-0.11842947 0.42634609 0.90795934
-0.11481008 0.42756861 0.91056281
-0.11036502 0.42569366 0.90656984
-0.106726 0.42690399 0.90914744
-0.10231824 0.42501426 0.90512294
-0.098899171 0.42724442 0.90987241
-0.095208324 0.42843744 0.91241306
-0.091274247 0.42859212 0.9127425
-0.087335996 0.42874038 0.91305822
-0.082991853 0.42681524 0.90895844
-0.079639129 0.43005127 0.91584992
-0.075316034 0.42811221 0.9117204
-0.071372367 0.42823419 0.91198027
-0.067588292 0.42938444 0.91442984
-0.063628696 0.4294937 0.91466254
-0.059666175 0.42959645 0.91488135
-0.055432465 0.42762187 0.91067624
-0.051733043 0.42978221 0.91527694
-0.047532629 0.42779365 0.91104203
-0.043579318 0.42786965 0.91120392
-0.039719936 0.42897528 0.91355854
-0.035666838 0.42800209 0.91148591
-0.031784795 0.42909473 0.91381288
-0.027747741 0.42810801 0.91171151
-0.023728581 0.42711446 0.90959555
-0.019919496 0.43026108 0.91629678
-0.0158215 0.42718053 0.90973634
-0.011895571 0.42824057 0.9119938
-0.0079306876 0.42825717 0.91202915
-0.0039462331 0.42619321 0.90763366
0 0.42930737 0.91426575
0.0039750375 0.42930406 0.91425872
0.0079498896 0.42929408 0.91423738
0.011866768 0.42720366 0.90978557
0.015898302 0.4292542 0.91415244
0.019823501 0.42818758 0.91188097
0.023843765 0.42918777 0.914011
0.02788211 0.43018115 0.91612655
0.031784795 0.42909473 0.91381288
0.035666838 0.42800209 0.91148591
0.039623998 0.42793918 0.91135198
0.043684833 0.42890561 0.91341013
0.047532629 0.42779365 0.91104203
0.051359072 0.42667538 0.90866053
0.05556668 0.42865723 0.9128812
0.059522398 0.42856127 0.91267681
0.063168734 0.42638895 0.90805054
0.067262568 0.42731515 0.91002297
0.071199976 0.42719987 0.90977746
0.075497955 0.42914629 0.91392267
0.079064809 0.42694995 0.90924531
0.082790904 0.42578179 0.90675753
0.087335996 0.42874038 0.91305822
0.090834379 0.42652664 0.90834379
0.095208324 0.42843744 0.91241306
0.098899171 0.42724442 0.90987241
0.10281493 0.42707738 0.90951669
0.1069838 0.42793518 0.91134346
0.11089946 0.42775509 0.91095996
0.11508673 0.42859891 0.91275692
0.1190016 0.42840576 0.91234565
0.1220247 0.4251183 0.90534455
0.12681499 0.4280006 0.91148275
0.13102742 0.42881703 0.91322148
0.1339584 0.42551491 0.90618914
0.13849185 0.42734629 0.91008931
0.1427142 0.42814261 0.91178519
0.14624572 0.42687935 0.90909493
0.15011294 0.42663679 0.9085784
0.15360339 0.42536321 0.90586609
0.15744783 0.42510918 0.90532506
0.16128533 0.42484915 0.90477139
0.16591147 0.42662945 0.90856278
0.16975302 0.42635638 0.90798116
0.17275453 0.42403382 0.90303504
0.17698811 0.42477146 0.90460593
0.18123232 0.42550194 0.90616149
0.18459937 0.42418578 0.90335864
0.18839306 0.42388439 0.90271682
0.19264053 0.42459545 0.90423107
0.19689789 0.42529947 0.90573037
0.20068477 0.42497951 0.90504897
0.20348477 0.42262223 0.90002882
0.2082326 0.42432305 0.90365094
0.21148606 0.42297211 0.900774
0.21522872 0.42263094 0.90004736
0.21948734 0.42329702 0.90146589
0.22268653 0.42193237 0.89855969
0.2264014 0.42157504 0.89779872
0.23065862 0.42222255 0.89917767
0.23436324 0.42185384 0.8983925
0.23634954 0.41845492 0.89115399
0.24116474 0.42009342 0.89464343
0.2471794 0.42373613 0.90240097
0.24908285 0.42032731 0.89514154
0.25092354 0.41691914 0.88788337
0.25699508 0.42053741 0.89558899
0.25877145 0.41712409 0.88831985
0.26363882 0.41872045 0.89171952
0.26853007 0.42030793 0.89510018
0.27085316 0.41788778 0.88994616
0.2744441 0.41746429 0.88904428
0.27802408 0.41703612 0.88813245
0.28159299 0.4166033 0.88721073
0.28515071 0.41616589 0.88627917
0.28938782 0.41671845 0.887456
0.29083404 0.4132905 0.88015568
0.29575595 0.41482654 0.8834269
0.29998407 0.41536257 0.88456845
0.30276865 0.41391158 0.88147837
0.30625752 0.41344765 0.88049036
0.30973455 0.41297939 0.87949318
0.31394905 0.41349387 0.88058883
0.31589547 0.41104475 0.87537307
0.32009429 0.41154978 0.87644863
0.32352346 0.4110651 0.8754164
0.32850474 0.41254082 0.87855917
0.32955492 0.40910265 0.87123716
0.33373773 0.4095872 0.87226903
0.33631128 0.40810809 0.86911911
0.33885643 0.40662771 0.86596638
0.34301808 0.40709838 0.86696881
0.3455222 0.40561301 0.86380547
0.34799775 0.40412644 0.86063957
0.35129133 0.4036113 0.85954261
0.35713542 0.4060066 0.86464369
0.35697821 0.40160048 0.85526031
0.36196613 0.40301386 0.85827023
0.36433876 0.4015162 0.85508078
0.36934015 0.40291652 0.85806292
0.37167916 0.4014135 0.85486209
0.37489104 0.40087357 0.8537122
0.37718099 0.39936811 0.85050613
0.38127565 0.39978421 0.85139227
0.38629675 0.40115428 0.8543101
0.38760808 0.39868259 0.84904629
0.39169392 0.39908439 0.84990191
0.39388791 0.39756912 0.84667498
0.39796245 0.39796245 0.8475126
0.3981913 0.39453816 0.84022021
0.40127006 0.39397424 0.83901918
0.4053123 0.39435792 0.83983624
0.41034001 0.39568502 0.84266257
0.41141826 0.39321393 0.83740008
0.41544998 0.39358422 0.83818859
0.41747102 0.39205974 0.83494204
0.42351699 0.39430892 0.83973199
0.42551112 0.3927795 0.83647484
0.42850506 0.39219105 0.83522171
0.43045074 0.39066115 0.8319636
0.43445247 0.39100721 0.83270055
0.43740588 0.39041185 0.83143264
0.43928987 0.38887954 0.82816941
0.44220924 0.38828132 0.82689536
0.44618526 0.38861293 0.82760161
0.44800767 0.38707861 0.82433414
0.45088664 0.38647422 0.82304698
0.45266131 0.38494033 0.81978029
0.45550641 0.38433355 0.81848812
0.45833802 0.38372484 0.81719184
0.45782259 0.38034493 0.8099938
0.46507892 0.38342381 0.81655073
0.46450281 0.38004777 0.80936098
0.47292423 0.38402867 0.81783891
0.47229436 0.38065514 0.81065446
0.47962403 0.38369927 0.8171373
0.48238802 0.38307279 0.81580323
0.48282263 0.38061932 0.81057811
0.48554641 0.37999284 0.80924398
0.48708582 0.37845516 0.80596936
0.48977616 0.37782732 0.80463231
0.49718833 0.3808251 0.81101638
0.49749723 0.37837818 0.80580539
0.50255328 0.37955073 0.80830252
0.5040127 0.37800956 0.80502033
0.51270127 0.38187405 0.81325024
0.50806892 0.37583181 0.80038255
0.51434356 0.37788507 0.80475521
0.51941431 0.37903205 0.80719787
0.51955986 0.37659371 0.80200511
0.5209077 0.3750535 0.79872507
0.53718638 0.38421276 0.81823087
0.52728403 0.37464917 0.79786396
0.53864169 0.3802177 0.80972284
0.53236699 0.3733483 0.7950936
0.54251176 0.37800819 0.80501741
0.53867358 0.37292781 0.79419816
0.54630435 0.37580168 0.80031842
0.54881597 0.37514001 0.79890931
0.54743183 0.37184048 0.79188251
0.53819942 0.36328462 0.77366167
-0.58037966 0.39787033 0.83954293
-0.59318811 0.40922469 0.86350161
-0.59028918 0.41244566 0.87029815
-0.58951396 0.41998053 0.88619745
-0.57416725 0.41173834 0.86880571
-0.57511008 0.4151457 0.87599546
-0.5462727 0.39695817 0.83761811
-0.56821412 0.4156734 0.87710905
-0.51753736 0.38115928 0.804281
-0.51857793 0.38452378 0.81138051
-0.51567554 0.38764572 0.81796807
-0.53340697 0.40375948 0.85196954
-0.53133261 0.4078539 0.86060917
-0.54029447 0.41767445 0.88133144
-0.53853089 0.41928479 0.88472939
-0.52504617 0.41172686 0.86878139
-0.52561802 0.41516206 0.87603003
-0.51110381 0.40664464 0.8580575
-0.50475472 0.40454602 0.85362923
-0.52929705 0.42735836 0.90176541
-0.48758653 0.39661887 0.83690226
-0.49038017 0.40189049 0.8480258
-0.48635364 0.4016102 0.8474344
-0.49125862 0.40875715 0.86251509
-0.48273814 0.40475735 0.85407519
-0.50294805 0.42497158 0.89672905
-0.477916 0.40697539 0.85875541
-0.48383415 0.4185549 0.88318926
-0.49042216 0.42764813 0.90237683
-0.45947188 0.40389058 0.85224617
-0.46716392 0.41738415 0.88071889
-0.44833043 0.4038679 0.8521983
-0.44426095 0.40353701 0.85150015
-0.4525916 0.41455868 0.87475687
-0.4556205 0.4208698 0.88807392
-0.43001735 0.40061444 0.84533322
-0.42899996 0.40311208 0.85060346
-0.43396735 0.41132557 0.8679347
-0.42384565 0.40525588 0.85512716
-0.42272201 0.40775841 0.86040765
-0.41959026 0.40835127 0.86165863
-0.40961793 0.40223742 0.84875786
-0.42490044 0.4210377 0.88842815
-0.40120912 0.40492401 0.85442686
-0.40940037 0.41705272 0.88001955
-0.39301041 0.40413332 0.85275841
-0.38891378 0.40372953 0.85190636
-0.37743649 0.3955825 0.83471531
-0.37523532 0.39709368 0.8379041
-0.37119094 0.3966648 0.83699918
-0.36804906 0.39720145 0.83813149
-0.36935514 0.40259713 0.84951687
-0.35730496 0.39339635 0.83010238
-0.35504052 0.39489201 0.83325839
-0.35796109 0.40224493 0.84877372
-0.35214946 0.39983636 0.84369141
-0.34893182 0.40035337 0.84478229
-0.34739223 0.40282717 0.85000229
-0.34915784 0.409228 0.86350858
-0.34003386 0.40286621 0.85008466
-0.32279566 0.38664535 0.81585717
-0.32696471 0.39599061 0.83557653
-0.32292426 0.39549151 0.83452338
-0.32048252 0.3969613 0.83762479
-0.32038009 0.40139577 0.84698188
-0.32488662 0.4117749 0.86888283
-0.31144342 0.39938036 0.84272921
-0.30967042 0.40183422 0.84790707
-0.30558375 0.40130877 0.8467983
-0.30075383 0.39978254 0.8435778
-0.29520571 0.39725211 0.83823842
-0.29993787 0.40866536 0.86232144
-0.29001105 0.40014181 0.84433591
-0.28451243 0.3975879 0.83894694
-0.29035655 0.41102421 0.86729878
-0.28550014 0.40946734 0.86401361
-0.28273511 0.41090837 0.86705434
-0.27926096 0.41134387 0.86797333
-0.27577585 0.41177487 0.86888278
-0.27028748 0.40918523 0.8634184
-0.2681174 0.41161686 0.86854935
-0.26396143 0.41102567 0.86730188
-0.26045051 0.41143626 0.86816829
-0.25692904 0.41184214 0.86902469
-0.2521551 0.41022247 0.86560702
-0.25107995 0.4146623 0.8749755
-0.24630292 0.41303107 0.87153345
-0.2433356 0.41443098 0.8744874
-0.23916845 0.41379938 0.87315464
-0.23443155 0.41214579 0.86966544
-0.23199458 0.41454771 0.87473369
-0.22783342 0.4138974 0.87336147
-0.22478232 0.41527581 0.87627006
-0.22170413 0.41665089 0.87917155
-0.21806574 0.41700292 0.8799144
-0.21336967 0.4153088 0.87633973
-0.21024628 0.41666988 0.87921166
-0.20658973 0.41700518 0.87991923
-0.20391914 0.4193809 0.88493216
-0.19973883 0.41868332 0.88346022
-0.19652672 0.4200277 0.88629699
-0.19187723 0.41829237 0.8826353
-0.18771696 0.41757447 0.88112038
-0.1853753 0.4209564 0.88825667
-0.18075593 0.41919988 0.88455027
-0.17790078 0.42154747 0.88950384
-0.17457664 0.42286339 0.89228058
-0.17039534 0.42211577 0.89070302
-0.16703784 0.42342153 0.89345825
-0.16325741 0.42369187 0.89402866
-0.15985781 0.42498785 0.89676338
-0.15529643 0.42318276 0.89295447
-0.15224324 0.42550036 0.89784485
-0.14842576 0.4257476 0.89836651
-0.14495273 0.42702287 0.90105742
-0.14077127 0.42622414 0.89937204
-0.13660219 0.42541826 0.89767152
-0.13341478 0.42771205 0.90251166
-0.12924293 0.42689332 0.90078408
-0.12508403 0.42606747 0.89904147
-0.12152817 0.42730871 0.90166062
-0.11737692 0.4264695 0.89988971
-0.11379154 0.42769927 0.90248471
-0.11018223 0.42892367 0.90506828
-0.105777 0.42702568 0.90106338
-0.1021485 0.42823794 0.90362138
-0.098734967 0.43048447 0.90836173
-0.094133995 0.42752525 0.90211749
-0.09046378 0.42871964 0.90463775
-0.086980581 0.43094927 0.90934247
-0.082452454 0.42796749 0.90305072
-0.078933083 0.43018529 0.90773046
-0.074645616 0.42823014 0.90360492
-0.071081236 0.43043634 0.90826017
-0.067312904 0.43159449 0.91070402
-0.063216329 0.43066126 0.90873474
-0.058992371 0.42867792 0.90454972
-0.055339824 0.43086004 0.90915424
-0.051148757 0.42886263 0.90493953
-0.047223326 0.42894521 0.90511382
-0.043611743 0.43215272 0.91188186
-0.03955768 0.43117869 0.90982664
-0.035520907 0.43019769 0.90775657
-0.031424988 0.42816547 0.90346843
-0.027701262 0.43134826 0.91018438
-0.023688825 0.430347 0.90807164
-0.019742364 0.4303835 0.90814871
-0.015718311 0.42832398 0.90380287
-0.011904387 0.43252608 0.91266972
-0.0078982227 0.43045318 0.90829569
-0.0039492031 0.43046319 0.90831679
0 0.4304665 0.90832382
0.0039587887 0.431508 0.91052145
0.0079173939 0.43149799 0.91050035
0.011904387 0.43252608 0.91266972
0.015871659 0.43250272 0.91262043
0.019790282 0.43142813 0.91035295
0.023631327 0.42930245 0.90586758
0.027701262 0.43134826 0.91018438
0.03157828 0.4302541 0.9078756
0.035434689 0.4291535 0.90555328
0.039461896 0.43013465 0.90762365
0.043295715 0.42902118 0.90527409
0.047568019 0.43207619 0.9117204
0.051148757 0.42886263 0.90493953
0.055607811 0.4329465 0.91355687
0.05942297 0.43180692 0.91115218
0.063216329 0.43066126 0.90873474
0.067312904 0.43159449 0.91070402
0.070737012 0.42835188 0.90386176
0.07519047 0.43135589 0.91020054
0.078933083 0.43018529 0.90773046
0.083054297 0.43109131 0.90964222
0.086350299 0.42782646 0.90275311
0.091122493 0.43184137 0.9112249
0.094821103 0.43064585 0.90870225
0.098019503 0.42736503 0.90177947
0.10239644 0.42927739 0.90581465
0.10629174 0.4291037 0.90544814
0.110449 0.42996219 0.90725964
0.11434392 0.42977542 0.9068656
0.1179481 0.42854479 0.9042688
0.12211811 0.42938298 0.90603751
0.12630138 0.43021411 0.9077912
0.12924293 0.42689332 0.90078408
0.13341478 0.42771205 0.90251166
0.13726693 0.42748845 0.90203983
0.14213799 0.43036222 0.90810382
0.14460175 0.42598891 0.89887571
0.14950652 0.42884767 0.90490794
0.15298228 0.42756587 0.90220326
0.15643275 0.42627922 0.89948833
0.16179784 0.43014547 0.90764642
0.16484629 0.42781535 0.90272963
0.16866352 0.42754242 0.90215367
0.17288895 0.42829308 0.90373772
0.17627567 0.42697883 0.9009645
0.18007028 0.42668828 0.90035146
0.18385713 0.42639205 0.89972633
0.18763597 0.42609003 0.89908904
0.19140673 0.42578229 0.89843971
0.19516924 0.42546895 0.89777851
0.19988205 0.42719892 0.90142888
0.20218061 0.42380166 0.89426041
0.2059086 0.42347243 0.89356565
0.2106405 0.42518175 0.89717251
0.21488407 0.42586115 0.89860606
0.21861216 0.42551297 0.89787143
0.22233109 0.42515945 0.89712542
0.22549856 0.42378181 0.89421844
0.22808792 0.42138278 0.88915634
0.2328715 0.42304993 0.89267409
0.23597488 0.42166004 0.88974136
0.24020572 0.42229715 0.89108574
0.24561663 0.42495576 0.89669561
0.24750027 0.42152393 0.88945413
0.25173607 0.42214206 0.89075845
0.25597906 0.4227533 0.89204824
0.25836581 0.42032644 0.88692737
0.26259661 0.4209269 0.88819438
0.26683411 0.4215205 0.88944691
0.26978412 0.4200924 0.88643354
0.27336174 0.41966805 0.8855381
0.27692848 0.41923892 0.88463259
0.28115684 0.41980952 0.8858366
0.28470996 0.41937011 0.88490939
0.28825191 0.41892609 0.88397253
0.2910845 0.41747648 0.88091362
0.29459533 0.41702455 0.87996006
0.29737982 0.41556925 0.87688929
0.30230579 0.41710544 0.88013071
0.30652189 0.4176361 0.8812505
0.30926314 0.4161689 0.87815458
0.31197599 0.41469979 0.8750546
0.31541687 0.41422218 0.87404674
0.31884584 0.41374043 0.87303025
0.3230356 0.41424564 0.87409633
0.32410562 0.41078505 0.86679411
0.32906035 0.41227099 0.86992967
0.33164358 0.41078582 0.86679578
0.33580902 0.41127172 0.8678211
0.33835155 0.40978134 0.86467618
0.34004426 0.40730578 0.85945255
0.34418061 0.40777922 0.86045158
0.34832051 0.40824661 0.8614378
0.35077316 0.40674761 0.85827476
0.35575688 0.40818423 0.86130619
0.35903746 0.40765712 0.86019391
0.36230525 0.40712652 0.85907435
0.3629303 0.40366736 0.85177517
0.36791795 0.40508139 0.85475892
0.3702473 0.40356958 0.85156882
0.3725484 0.4020572 0.84837759
0.37754381 0.40345368 0.85132426
0.37981135 0.40193629 0.84812242
0.38389626 0.40235284 0.84900135
0.38798335 0.40276366 0.8498683
0.39019644 0.40123975 0.84665269
0.38954496 0.39682618 0.83733964
0.39263222 0.39626771 0.83616126
0.39954826 0.39954826 0.8430835
0.40070337 0.3970606 0.8378343
0.40669212 0.39936432 0.84269536
0.4077985 0.39687535 0.83744341
0.41282222 0.39820907 0.84025764
0.41387278 0.39572042 0.83500642
0.41488084 0.39323491 0.82976168
0.42090562 0.39550617 0.83455431
0.42288437 0.39396918 0.83131111
0.42483532 0.39243266 0.82806891
0.42779207 0.39184314 0.82682496
0.43073544 0.39125133 0.82557625
0.43680793 0.39348814 0.83029604
0.43763658 0.39100319 0.82505262
0.43948528 0.38946259 0.82180178
0.44344378 0.38980135 0.82251662
0.4452517 0.38825947 0.81926316
0.44595003 0.38578215 0.81403577
0.4509646 0.38704833 0.81670749
0.45599324 0.38830677 0.81936288
0.45662388 0.38582948 0.81413555
0.46165302 0.38707829 0.81677073
0.46111321 0.38367435 0.80958807
0.46725893 0.38584259 0.81416333
0.47117174 0.38614824 0.81480819
0.47394776 0.38552463 0.81349242
0.47328073 0.38213035 0.80633014
0.47715989 0.3824296 0.8069616
0.47756985 0.37996435 0.8017596
0.48956901 0.38668856 0.81594831
0.48879573 0.38330027 0.80879873
0.49149767 0.38266605 0.80746049
0.49891526 0.38568625 0.81383342
0.4956727 0.38048115 0.80285019
0.50430322 0.38439897 0.81111705
0.50817829 0.38466278 0.8116737
0.50963724 0.38310656 0.80839002
0.50742823 0.37883338 0.79937321
0.51369721 0.3809047 0.8037439
0.51753736 0.38115928 0.804281
0.52507418 0.38411465 0.81051719
0.51530486 0.37445486 0.79013407
0.52282733 0.37740517 0.79635948
0.53038543 0.38034216 0.80255687
0.53420776 0.38057941 0.80305743
0.53802878 0.38081259 0.80354947
0.54565549 0.383719 0.80968231
0.54056722 0.37770402 0.79699016
0.52642846 0.36548218 0.77120095
0.53399789 0.36839095 0.77733868
0.54806453 0.37571719 0.79279774
0.54923892 0.37416899 0.78953093
-0.56547391 0.39120838 0.81798112
-0.59503597 0.41426554 0.86619157
-0.58591133 0.41051114 0.85834146
-0.57428479 0.40494445 0.84670198
-0.57033193 0.40475172 0.84629899
-0.54233342 0.38991296 0.81527251
-0.56941932 0.41480878 0.86732745
-0.53549361 0.39533085 0.82660085
-0.53648233 0.39873689 0.83372259
-0.55813694 0.41765353 0.87327558
-0.54034758 0.40991884 0.85710299
-0.50632906 0.38677916 0.80872005
-0.55378354 0.4259873 0.89070076
-0.52471334 0.40646809 0.84988785
-0.50417495 0.39332795 0.82241297
-0.51199865 0.40228471 0.84114075
-0.53370661 0.42235774 0.88311166
-0.51331925 0.4091675 0.85553199
-0.50928044 0.40891135 0.85499638
-0.49720269 0.40214923 0.84085745
-0.52745843 0.42978096 0.89863294
-0.50101441 0.4143728 0.86641586
-0.5092634 0.42438614 0.88735288
-0.48614347 0.40821207 0.85353434
-0.49206656 0.41636404 0.87057936
-0.48244646 0.41138849 0.86017585
-0.48493516 0.41674116 0.87136793
-0.46232152 0.40043598 0.83727521
-0.48209772 0.42087895 0.88001961
-0.45646092 0.40168563 0.8398881
-0.46844921 0.41555977 0.86889768
-0.46962744 0.41999206 0.87816519
-0.46231073 0.41683751 0.8715694
-0.43202272 0.39274791 0.82120013
-0.4467648 0.40953439 0.85629922
-0.45196515 0.4177829 0.87354606
-0.43654251 0.40694642 0.85088801
-0.42534825 0.39990005 0.83615464
-0.44052535 0.4177396 0.87345552
-0.43436262 0.41547728 0.86872524
-0.43121719 0.41608676 0.86999959
-0.41718352 0.40610787 0.84913462
-0.40820348 0.40091416 0.83827507
-0.42267197 0.41886413 0.87580675
-0.39916739 0.39916739 0.83462274
-0.40473327 0.40844646 0.85402435
-0.40444219 0.41193187 0.86131209
-0.38237756 0.39309844 0.82193309
-0.38682574 0.40142295 0.8393389
-0.37596947 0.39766002 0.83147091
-0.37194985 0.397228 0.8305676
-0.36702657 0.39581296 0.82760894
-0.37020841 0.40319729 0.84304887
-0.35990691 0.39589763 0.82778591
-0.36649591 0.40721762 0.85145509
-0.35451901 0.39792949 0.83203441
-0.35396367 0.40140209 0.83929527
-0.35936704 0.41177475 0.86098355
-0.34330404 0.39750999 0.83115721
-0.33928081 0.39703077 0.83015519
-0.32773671 0.38764557 0.81053162
-0.33621421 0.40199527 0.84053552
-0.32805389 0.39654866 0.82914716
-0.3280988 0.40100968 0.83847475
-0.32565534 0.40249538 0.84158128
-0.3192037 0.39900464 0.83428246
-0.32383594 0.4094477 0.85611796
-0.31971613 0.40893924 0.85505474
-0.31174251 0.4034315 0.84353858
-0.30614564 0.40090501 0.83825594
-0.30662844 0.40637505 0.8496933
-0.30328235 0.4068422 0.85067004
-0.29623115 0.40228918 0.8411501
-0.2929036 0.40274248 0.84209788
-0.28667653 0.39916983 0.83462787
-0.2912114 0.41068274 0.85870022
-0.28708643 0.41012347 0.85753089
-0.286452 0.41460159 0.86689425
-0.28023085 0.41100523 0.85937452
-0.27746665 0.41245043 0.86239636
-0.27333143 0.41186929 0.8611812
-0.26853937 0.41026849 0.8578341
-0.26638886 0.41271517 0.86294985
-0.26419359 0.41516137 0.86806464
-0.26004139 0.41455871 0.86680454
-0.25526717 0.41293219 0.86340368
-0.2536177 0.41638729 0.87062794
-0.24823754 0.41372925 0.86507022
-0.24470755 0.41412047 0.8658883
-0.24176164 0.41552782 0.86883092
-0.23878843 0.41693217 0.87176722
-0.23463486 0.41628766 0.87041962
-0.23105694 0.41666007 0.87119836
-0.22635166 0.41497806 0.86768138
-0.22552274 0.42046615 0.87915647
-0.22026636 0.41774654 0.87347007
-0.21665095 0.41809833 0.87420559
-0.21354988 0.41947299 0.8770799
-0.20990756 0.41981512 0.87779522
-0.20575084 0.4191221 0.87634617
-0.20259644 0.42048323 0.87919217
-0.19844039 0.41977775 0.87771714
-0.19525102 0.42112964 0.88054377
-0.19109617 0.42041159 0.87904239
-0.18787223 0.421754 0.88184923
-0.18417066 0.42205778 0.88248444
-0.18090348 0.42339113 0.88527238
-0.17717709 0.42368436 0.88588548
-0.17301898 0.42293531 0.88431925
-0.16928655 0.42321637 0.88490695
-0.16635825 0.42556757 0.88982314
-0.16298942 0.42687708 0.89256114
-0.15882035 0.42610338 0.89094347
-0.15390643 0.42324266 0.88496196
-0.15125459 0.42661551 0.89201427
-0.14674233 0.42478043 0.88817722
-0.14366218 0.42710379 0.89303517
-0.13985634 0.42733884 0.89352667
-0.13670795 0.42965353 0.89836651
-0.13222624 0.42779079 0.89447165
-0.1293418 0.43113938 0.90147322
-0.12487639 0.42926264 0.89754915
-0.12132626 0.43051252 0.90016252
-0.1168966 0.42862087 0.89620727
-0.11305066 0.42881289 0.89660877
-0.10919964 0.42899865 0.89699715
-0.10585759 0.43127164 0.90174979
-0.10247309 0.43353996 0.90649265
-0.097855814 0.43056563 0.90027356
-0.094205342 0.43177447 0.90280116
-0.090531692 0.43297765 0.90531695
-0.086205781 0.4310289 0.90124226
-0.082514651 0.43221962 0.90373188
-0.078991607 0.43445382 0.90840346
-0.074339159 0.43038458 0.89989507
-0.070790149 0.43260649 0.90454084
-0.067037605 0.43377274 0.90697932
-0.062957354 0.43283185 0.90501201
-0.059036542 0.43293467 0.90522701
-0.055246796 0.434082 0.90762597
-0.05118699 0.43312067 0.90561593
-0.04714388 0.43215224 0.90359104
-0.043117691 0.43117693 0.90155178
-0.039395463 0.43335009 0.90609562
-0.035288949 0.43130937 0.90182871
-0.031601608 0.43452215 0.90854627
-0.027587632 0.43351999 0.90645081
-0.023534106 0.43145862 0.90214074
-0.01970909 0.43359998 0.90661812
-0.015730087 0.43257743 0.9044801
-0.011884319 0.43575838 0.91113114
-0.0078274934 0.43051216 0.90016174
-0.0039234064 0.43157473 0.90238351
0 0.43263069 0.90459144
0.003942545 0.43367997 0.90678537
0.0078466311 0.43156475 0.90236259
0.011826907 0.4336533 0.90672958
0.015730087 0.43257743 0.9044801
0.019661251 0.43254754 0.90441757
0.023706309 0.43461567 0.90874183
0.027520671 0.43246773 0.90425068
0.031601608 0.43452215 0.90854627
0.035288949 0.43130937 0.90182871
0.039395463 0.43335009 0.90609562
0.043222856 0.4322286 0.90375066
0.04714388 0.43215224 0.90359104
0.051311232 0.43417194 0.90781409
0.055246796 0.434082 0.90762597
0.058749955 0.43083304 0.90083265
0.062804542 0.43178129 0.9028154
0.066875286 0.43272242 0.90478325
0.070446506 0.43050644 0.90014982
0.074520469 0.4314343 0.90208995
0.07861001 0.43235505 0.90401512
0.08271493 0.4332687 0.90592545
0.086205781 0.4310289 0.90124226
0.090312488 0.43192929 0.90312487
0.094433993 0.43282247 0.90499246
0.097855814 0.43056563 0.90027356
0.10222558 0.43249282 0.90430313
0.10585759 0.43127164 0.90174979
0.10973233 0.43109134 0.90137279
0.11442932 0.4340423 0.907543
0.11746683 0.43071175 0.90057904
0.12162074 0.43155748 0.90234745
0.12548406 0.43135154 0.9019168
0.1293418 0.43113938 0.90147322
0.13254875 0.42883417 0.89665329
0.13737155 0.43173921 0.90272743
0.14087969 0.43046573 0.90006477
0.14436299 0.42918724 0.8973915
0.14961962 0.43310946 0.90559244
0.15199243 0.42869657 0.89636558
0.15617533 0.42948213 0.89800811
0.15998246 0.42922124 0.89746261
0.16417912 0.42999294 0.89907616
0.16757551 0.42868152 0.89633405
0.17177604 0.42944014 0.89792025
0.17513931 0.42811835 0.8951565
0.17934306 0.42886382 0.89671528
0.18311501 0.42856702 0.89609474
0.18597625 0.42619559 0.89113629
0.19063504 0.42795622 0.89481753
0.19485237 0.4286752 0.89632088
0.19812234 0.42732269 0.89349294
0.20234093 0.42802891 0.89496952
0.20557579 0.42666677 0.89212143
0.21030061 0.42839015 0.89572483
0.2135089 0.42701781 0.89285541
0.21721372 0.42666984 0.89212781
0.22037712 0.42528921 0.88924104
0.22567831 0.42801058 0.89493126
0.22772296 0.42456824 0.88773358
0.23249948 0.42624906 0.89124805
0.23559861 0.42484996 0.88832259
0.23867035 0.42344737 0.88538998
0.24288528 0.42408538 0.886724
0.24710771 0.42471641 0.8880434
0.25133756 0.42534047 0.88934827
0.25374031 0.42290056 0.88424659
0.25733826 0.42249563 0.8833999
0.26155454 0.42310292 0.88466972
0.26577759 0.4237034 0.88592523
0.26936117 0.42328188 0.88504386
0.27227953 0.42184156 0.88203228
0.2745069 0.41938555 0.87689704
0.27870402 0.419965 0.87810862
0.28290716 0.42053768 0.87930608
0.28573906 0.41908392 0.87626642
0.28923985 0.41863662 0.8753311
0.29272941 0.41818485 0.87438655
0.2969214 0.41873533 0.87553746
0.29967445 0.41726819 0.87246984
0.30239922 0.41579893 0.86939776
0.30509594 0.41432777 0.86632174
0.31000534 0.41586083 0.86952722
0.3134256 0.41538337 0.86852878
0.31607056 0.4139019 0.86543125
0.32100219 0.41541463 0.86859417
0.32361507 0.4139263 0.86548221
0.32698762 0.41343257 0.86444998
0.33034799 0.41293499 0.86340946
0.33208805 0.41044593 0.85820514
0.33622006 0.41093564 0.85922909
0.33953574 0.41042781 0.85816729
0.34449536 0.41189662 0.86123836
0.3461301 0.40940118 0.85602063
0.34940857 0.40888241 0.85493594
0.3526746 0.40836012 0.85384381
0.35678783 0.40881941 0.85480416
0.36090413 0.40927273 0.85575205
0.36327255 0.4077549 0.8525784
0.36472967 0.40525517 0.84735173
0.36792466 0.40471715 0.84622675
0.37290406 0.40613317 0.84918755
0.37608895 0.40558612 0.84804368
0.3792609 0.40503591 0.84689325
0.38241991 0.4044826 0.84573632
0.38463688 0.40295294 0.84253788
0.38682574 0.40142295 0.8393389
0.38898659 0.39989272 0.83613938
0.39397424 0.40127006 0.83901918
0.3970606 0.40070337 0.8378343
0.39820087 0.39820087 0.83260185
0.40222013 0.39859653 0.8334291
0.40525973 0.39802298 0.83222985
0.41125199 0.40033382 0.83706158
0.41229543 0.39782891 0.83182406
0.41329655 0.39532715 0.8265931
0.41526589 0.39378664 0.82337201
0.41822517 0.39320317 0.82215208
0.42629507 0.3973937 0.83091414
0.42719993 0.3948907 0.82568049
0.42702401 0.39143869 0.81846273
0.43306872 0.39369884 0.82318848
0.43598324 0.39309961 0.82193559
0.44100454 0.39439431 0.82464266
0.44070509 0.39094806 0.81743681
0.44679466 0.39317933 0.82210219
0.44858867 0.39162502 0.81885231
0.45035553 0.39007172 0.81560445
0.45318991 0.38946012 0.81432569
0.45601103 0.38884664 0.81304294
0.45881882 0.38823134 0.81175643
0.45826825 0.38480541 0.80459309
0.46663779 0.38886482 0.81308103
0.46829051 0.38730791 0.80982566
0.4687815 0.38482064 0.80462497
0.47379926 0.38605866 0.8072136
0.47768202 0.38636047 0.80784458
0.4781 0.38387594 0.80264962
0.48544669 0.38695025 0.8090778
0.48699272 0.38538989 0.80581528
0.49086112 0.38567662 0.80641472
0.49354833 0.38503769 0.8050788
0.49622214 0.38439745 0.80374008
0.50485009 0.3883462 0.81199658
0.50032991 0.38219649 0.79913807
0.50898808 0.3861289 0.80736041
0.50314689 0.37908328 0.79262865
0.50939143 0.38117728 0.79700696
0.51810968 0.38508153 0.80517048
0.51579732 0.38078997 0.79619718
0.51713395 0.37923157 0.79293871
0.52714801 0.38401514 0.80294073
0.53222448 0.38516244 0.80533963
0.53103483 0.38178977 0.79828775
0.53988719 0.38563371 0.80632502
0.52850765 0.37506995 0.78423709
0.53226399 0.37531438 0.78474826
0.5424158 0.38003653 0.79462183
0.54234385 0.37758115 0.78948778
0.55514562 0.38406304 0.80304086
0.55116844 0.37892827 0.79230458
-0.57739127 0.4108361 0.851282
-0.55443537 0.39704725 0.82271051
-0.55055463 0.39682835 0.82225692
-0.56547982 0.41025007 0.85006768
-0.56622058 0.41622838 0.86245519
-0.54834038 0.40849522 0.84643155
-0.54803443 0.41102582 0.85167509
-0.5476895 0.41356146 0.85692918
-0.52793193 0.40137291 0.83167362
-0.54085946 0.4140372 0.85791492
-0.53803152 0.41473264 0.85935593
-0.54830092 0.42560422 0.88188261
-0.53944659 0.42168009 0.87375152
-0.54361278 0.4279505 0.88674426
-0.49608508 0.39332464 0.81499696
-0.50501692 0.4032869 0.83563948
-0.5022071 0.40394917 0.83701181
-0.5259096 0.42610195 0.88291395
-0.50686681 0.41369277 0.85720122
-0.50443202 0.4178504 0.86581612
-0.49358481 0.41193917 0.85356766
-0.49401909 0.41542515 0.86079085
-0.48103687 0.40759614 0.84456855
-0.49169478 0.4230862 0.87666506
-0.46897358 0.40668806 0.84268689
-0.47907445 0.41871864 0.86761516
-0.45985115 0.40510693 0.83941078
-0.4590542 0.40764013 0.84465975
-0.46141282 0.41303891 0.85584635
-0.45945328 0.41462862 0.85914034
-0.47639564 0.43344191 0.89812285
-0.45231673 0.41493517 0.8597756
-0.4235135 0.395042 0.81855553
-0.44411907 0.41777307 0.86565584
-0.42881683 0.40682623 0.84297323
-0.44394201 0.42480662 0.88022989
-0.43375036 0.41866341 0.86750072
-0.41767937 0.40668786 0.84268647
-0.41856635 0.41115811 0.85194927
-0.41252235 0.40883914 0.84714413
-0.41331673 0.41331673 0.85642201
-0.40728262 0.41098517 0.85159093
-0.39457577 0.40181571 0.83259112
-0.3877061 0.39847574 0.82567036
-0.38276884 0.39707795 0.82277417
-0.3909426 0.40938333 0.84827173
-0.37665725 0.39818051 0.8250587
-0.37818316 0.4036378 0.83636653
-0.37688273 0.4061552 0.84158283
-0.35653582 0.38799492 0.80395341
-0.36069313 0.39640531 0.82138038
-0.35759875 0.39693466 0.82247722
-0.35801929 0.40141556 0.83176196
-0.34350631 0.38907349 0.80618829
-0.34650898 0.39652061 0.82161927
-0.33307961 0.38512331 0.7980032
-0.33088428 0.38661218 0.80108827
-0.33961692 0.40103704 0.83097762
-0.33726385 0.40254071 0.83409333
-0.33653653 0.40603864 0.84134132
